-22.282082 -10.487801 378.948090 
-16.825096 -15.001045 376.641296 
-22.782814 -11.191170 378.839294 
-26.762825 -6.923485 384.781799 
-27.295418 -7.673058 384.653229 
-29.887703 -4.534492 389.744598 
-30.388786 -5.223732 389.602478 
-32.874214 -2.323555 391.787384 
-33.366142 -3.061104 391.598969 
-37.743889 0.334343 391.943512 
-38.121376 -0.464943 391.709534 
-44.240211 2.440605 391.190430 
-44.416374 1.568871 390.954498 
-49.990257 2.851036 389.643097 
-49.929222 1.968849 389.469574 
-55.374138 2.327522 386.629761 
-55.188332 1.524208 386.526154 
-61.577583 1.310905 382.811127 
-61.419807 0.596748 382.701416 
-67.639816 0.356392 378.868622 
-67.537575 -0.309456 378.748444 
-67.639824 0.356392 378.868622 
-67.537590 -0.309456 378.748474 
-72.658714 -0.096886 374.203094 
-72.534149 -0.778603 374.076233 
-78.178070 -0.658501 369.536621 
-77.996895 -1.365227 369.401489 
-85.075493 -1.755089 365.942017 
-84.890854 -2.460152 365.800385 
-85.075485 -1.755089 365.942017 
-84.890846 -2.460152 365.800385 
-92.263412 -2.797478 362.843628 
-92.128983 -3.477226 362.686371 
-99.748306 -4.095955 359.773438 
-99.647697 -4.681969 359.633209 
-106.660011 -7.048759 357.073822 
-106.490898 -7.570396 357.004211 
-113.115013 -10.118736 354.718201 
-112.839859 -10.614876 354.695801 
-113.114998 -10.118721 354.718201 
-112.839844 -10.614845 354.695801 
-118.076469 -13.466393 351.701935 
-117.774986 -13.970955 351.762787 
-121.568100 -16.990501 348.711792 
-121.308884 -17.480293 348.823181 
-124.679558 -19.144127 346.613037 
-124.454201 -19.629570 346.705292 
-127.252403 -19.605232 345.662598 
-127.076965 -20.037209 345.735352 
-127.252411 -19.605232 345.662567 
-127.076973 -20.037209 345.735321 
-128.484711 -20.032738 346.812195 
-16.825111 -15.001060 376.641266 
-23.101646 -11.969841 378.946655 
-27.628914 -8.548500 384.709381 
-30.729210 -6.006187 389.668365 
-33.790657 -3.826958 391.712524 
-38.510033 -1.296211 391.788422 
-44.607491 0.635811 390.990936 
-49.932701 1.062279 389.534760 
-55.109123 0.703789 386.609619 
-61.360313 -0.138908 382.749176 
-61.360329 -0.138908 382.749176 
-67.514297 -1.010994 378.754578 
-67.514313 -1.011009 378.754547 
-72.518990 -1.489281 374.076263 
-77.961243 -2.093071 369.421112 
-84.849815 -3.196449 365.823822 
-84.849808 -3.196434 365.823853 
-92.127983 -4.178535 362.682556 
-99.648666 -5.276375 359.620514 
-106.386223 -8.120903 357.040741 
-112.613525 -11.126152 354.764008 
-112.613518 -11.126137 354.764008 
-117.522987 -14.460960 351.904175 
-121.098572 -17.937294 349.006561 
-124.271599 -20.084831 346.877625 
-126.931923 -20.459908 345.892365 
-126.931931 -20.459923 345.892303 
-23.218681 -12.772881 379.264893 
-27.735191 -9.462547 384.943695 
-30.893898 -6.819878 389.929657 
-34.113960 -4.553093 392.097412 
-38.858208 -2.031395 392.154449 
-44.797951 -0.234093 391.306458 
-50.007195 0.194389 389.844025 
-55.136711 -0.062080 386.858002 
-61.400215 -0.841393 382.943420 
-61.400215 -0.841393 382.943390 
-67.572731 -1.686394 378.887695 
-67.572731 -1.686378 378.887695 
-72.612564 -2.176384 374.201416 
-78.070633 -2.805565 369.591766 
-84.954781 -3.915291 366.010712 
-84.954773 -3.915291 366.010712 
-92.259872 -4.859978 362.831512 
-99.751747 -5.853539 359.736053 
-106.361824 -8.673454 357.192902 
-112.447853 -11.644066 354.937714 
-112.447845 -11.644051 354.937714 
-117.319183 -14.941292 352.132812 
-120.925011 -18.383766 349.268707 
-124.121826 -20.530251 347.136902 
-126.822220 -20.856209 346.124786 
-126.822227 -20.856224 346.124756 
-128.484711 -20.032753 346.812195 
-16.825096 -15.001045 376.641327 
-23.141655 -13.503014 379.735138 
-27.618996 -10.324562 385.323456 
-30.875328 -7.584740 390.348907 
-34.314888 -5.176567 392.707092 
-39.139687 -2.606544 392.795044 
-44.972069 -0.926598 391.903259 
-50.157967 -0.535942 390.386780 
-55.285912 -0.756538 387.283997 
-61.547356 -1.475471 383.288269 
-67.716789 -2.294029 379.148834 
-67.716797 -2.294044 379.148804 
-72.815895 -2.796684 374.452698 
-78.317078 -3.436150 369.900208 
-85.191864 -4.543877 366.339264 
-85.191856 -4.543892 366.339294 
-92.513176 -5.463417 363.120483 
-99.948822 -6.370369 359.969757 
-106.426819 -9.168297 357.448303 
-112.358643 -12.125816 355.204834 
-112.358635 -12.125801 355.204834 
-117.172615 -15.394173 352.443573 
-120.794533 -18.795769 349.594513 
-124.013206 -20.935005 347.459137 
-126.752785 -21.213249 346.427399 
-126.752792 -21.213280 346.427368 
-128.484695 -20.032722 346.812195 
-16.825096 -15.001060 376.641266 
-22.888634 -14.112144 380.317627 
-27.311531 -11.071602 385.803101 
-30.686012 -8.239937 390.882996 
-34.379051 -5.652748 393.466125 
-39.324730 -2.983772 393.617462 
-45.093727 -1.378670 392.711151 
-50.360863 -1.044930 391.093994 
-55.545723 -1.309822 387.850586 
-61.798729 -1.991127 383.770447 
-61.798729 -1.991142 383.770447 
-67.958572 -2.804649 379.550079 
-67.958580 -2.804649 379.550110 
-73.127937 -3.310402 374.829590 
-78.678261 -3.932961 370.319305 
-85.538414 -5.037453 366.781860 
-85.538399 -5.037468 366.781860 
-92.865501 -5.938332 363.524475 
-100.231026 -6.783867 360.310669 
-106.589188 -9.564873 357.799377 
-112.374763 -12.542381 355.587189 
-112.374748 -12.542366 355.587189 
-117.110367 -15.797173 352.859467 
-120.721924 -19.158150 350.001831 
-123.958382 -21.286095 347.862457 
-126.733612 -21.509041 346.794647 
-126.733620 -21.509056 346.794617 
-22.888618 -14.112129 380.317596 
-22.509239 -14.576546 380.959106 
-27.311531 -11.071587 385.803101 
-26.855141 -11.665962 386.339691 
-30.686012 -8.239922 390.883026 
-30.355904 -8.756981 391.486206 
-34.379066 -5.652748 393.466125 
-34.316154 -5.967308 394.301605 
-39.324745 -2.983757 393.617493 
-39.401299 -3.155190 394.509674 
-45.093727 -1.378654 392.711182 
-45.145058 -1.584618 393.613586 
-50.360878 -1.044930 391.094025 
-50.583366 -1.303520 391.915833 
-55.545723 -1.309807 387.850586 
-55.885567 -1.641502 388.501129 
-61.798729 -1.991142 383.770477 
-62.131950 -2.324348 384.343170 
-62.131950 -2.324364 384.343140 
-67.958572 -2.804649 379.550110 
-68.284637 -3.149498 380.065399 
-68.284645 -3.149498 380.065369 
-73.527893 -3.659218 375.305878 
-79.122269 -4.270790 370.814331 
-85.961395 -5.375496 367.300720 
-85.961388 -5.375496 367.300720 
-92.865501 -5.938301 363.524475 
-93.283821 -6.256371 364.005859 
-100.576965 -7.061409 360.731964 
-106.589188 -9.564873 357.799408 
-106.843277 -9.829506 358.226929 
-112.525093 -12.823524 356.065460 
-112.374748 -12.542366 355.587219 
-112.525085 -12.823509 356.065460 
-117.177383 -16.070839 353.365997 
-120.721924 -19.158165 350.001831 
-120.740685 -19.423851 350.494507 
-123.958382 -21.286095 347.862488 
-123.979958 -21.550301 348.355865 
-126.782333 -21.703850 347.219360 
-126.782341 -21.703880 347.219360 
-128.484695 -20.032753 346.812195 
-22.044304 -14.851250 381.595154 
-26.276237 -12.082420 386.907379 
-29.907784 -9.115776 392.118896 
-34.149925 -6.121239 395.164917 
-39.394142 -3.165245 395.438232 
-45.148048 -1.587990 394.555450 
-50.808022 -1.327263 392.812714 
-56.281975 -1.752022 389.208557 
-62.516258 -2.445549 384.954254 
-62.516258 -2.445564 384.954224 
-68.653793 -3.260445 380.627777 
-68.653793 -3.260445 380.627747 
-73.977089 -3.790077 375.832794 
-79.617874 -4.422066 371.351410 
-86.431084 -5.527107 367.859497 
-86.431068 -5.527107 367.859497 
-93.736336 -6.396904 364.527802 
-100.949684 -7.174553 361.187958 
-107.163200 -9.913811 358.682495 
-112.806793 -12.865440 356.536285 
-112.806793 -12.865425 356.536316 
-117.397858 -16.097908 353.860199 
-120.888542 -19.482430 350.985962 
-124.108673 -21.625359 348.855743 
-126.914970 -21.743797 347.667755 
-126.914978 -21.743828 347.667725 
-128.484695 -20.032738 346.812195 
-16.825096 -15.001045 376.641266 
-21.471565 -14.958488 382.243317 
-25.574883 -12.293846 387.490875 
-29.355080 -9.292198 392.766998 
-33.889275 -6.120781 395.997101 
-39.314339 -3.024315 396.336029 
-45.114662 -1.413612 395.509308 
-51.026604 -1.149254 393.660156 
-56.703514 -1.637581 389.897095 
-62.924782 -2.353828 385.563507 
-62.924782 -2.353844 385.563477 
-69.040367 -3.142982 381.196472 
-69.040375 -3.142982 381.196472 
-74.436531 -3.698235 376.364532 
-80.130775 -4.375725 371.895203 
-86.930237 -5.483864 368.438049 
-86.930229 -5.483864 368.438019 
-94.200294 -6.356438 365.064728 
-101.323051 -7.126732 361.647095 
-107.518600 -9.815834 359.121613 
-113.169174 -12.696388 356.950897 
-113.169167 -12.696388 356.950928 
-117.730049 -15.882240 354.259644 
-121.149223 -19.301491 351.384094 
-124.336212 -21.478859 349.284271 
-127.125305 -21.592171 348.060455 
-127.125305 -21.592186 348.060425 
-16.825096 -15.001030 376.641327 
-16.825081 -15.001030 376.641357 
-21.471565 -14.958488 382.243347 
-20.838417 -14.867149 382.834564 
-25.574867 -12.293846 387.490906 
-24.801613 -12.268196 388.039490 
-29.355064 -9.292183 392.766998 
-28.720512 -9.267311 393.393036 
-33.889275 -6.120750 395.997131 
-33.535851 -5.960121 396.813324 
-39.314323 -3.024300 396.336060 
-39.165260 -2.748238 397.187225 
-45.114632 -1.413597 395.509369 
-45.061150 -1.099220 396.374603 
-51.026604 -1.149239 393.660187 
-51.253410 -0.807411 394.467041 
-56.703499 -1.637566 389.897125 
-57.128517 -1.331581 390.526672 
-62.924767 -2.353798 385.563507 
-63.330544 -2.064079 386.125946 
-62.924767 -2.353813 385.563507 
-63.330528 -2.064079 386.125916 
-69.040359 -3.142967 381.196503 
-69.394157 -2.832832 381.702881 
-69.040367 -3.142982 381.196503 
-69.394173 -2.832848 381.702881 
-74.436523 -3.698219 376.364563 
-74.857544 -3.416359 376.842041 
-80.130775 -4.375710 371.895233 
-80.619102 -4.137459 372.402985 
-86.930229 -5.483833 368.438110 
-87.404449 -5.248024 368.973877 
-86.930222 -5.483818 368.438080 
-94.200294 -6.356407 365.064758 
-94.645943 -6.132835 365.582703 
-101.323036 -7.126732 361.647156 
-101.682610 -6.919106 362.092438 
-107.518593 -9.815804 359.121674 
-107.854118 -9.576103 359.486542 
-113.169167 -12.696388 356.950958 
-113.539101 -12.392387 357.262207 
-113.169159 -12.696373 356.950928 
-113.539093 -12.392372 357.262238 
-117.730042 -15.882225 354.259705 
-118.098999 -15.513008 354.522247 
-121.149216 -19.301476 351.384155 
-121.467644 -18.937309 351.639313 
-124.336205 -21.478828 349.284302 
-124.625641 -21.141350 349.586639 
-127.125298 -21.592155 348.060486 
-127.368660 -21.296654 348.333649 
-127.368668 -21.296669 348.333618 
-128.484695 -20.032722 346.812225 
-20.181557 -14.576439 383.333557 
-24.029045 -12.004356 388.504883 
-28.081627 -9.046806 393.914581 
-33.112282 -5.628349 397.536285 
-38.927849 -2.305504 397.973877 
-44.981483 -0.607780 397.146088 
-51.472481 -0.253761 395.184052 
-57.523720 -0.834328 391.049988 
-63.686638 -1.614159 386.579132 
-69.695587 -2.362450 382.119507 
-69.695595 -2.362450 382.119507 
-75.223679 -2.959175 377.248413 
-81.048729 -3.717659 372.836670 
-87.820122 -4.832069 369.428314 
-87.820107 -4.832085 369.428345 
-95.032249 -5.738853 366.033539 
-101.994270 -6.567390 362.483002 
-108.171417 -9.210365 359.785858 
-113.888145 -12.020180 357.484802 
-113.888138 -12.020164 357.484833 
-118.450218 -15.094048 354.666962 
-121.783134 -18.500526 351.756439 
-124.914871 -20.716637 349.746094 
-127.610794 -20.923454 348.491425 
-127.610794 -20.923470 348.491425 
-16.825081 -15.001045 376.641327 
-19.552010 -14.107002 383.706451 
-23.311043 -11.523232 388.853546 
-27.462029 -8.617577 394.314819 
-32.633492 -5.118462 398.086182 
-38.615379 -1.677086 398.580658 
-44.858833 0.110664 397.748718 
-51.646065 0.480980 395.701904 
-57.856163 -0.171272 391.422760 
-63.980919 -1.023781 386.913788 
-69.927826 -1.793419 382.425842 
-69.927834 -1.793404 382.425812 
-75.504372 -2.391029 377.551575 
-81.392067 -3.149605 373.167175 
-88.154671 -4.265465 369.774628 
-88.154663 -4.265480 369.774628 
-95.332367 -5.204369 366.385254 
-102.234261 -6.097328 362.789032 
-108.442337 -8.769814 360.003235 
-114.222191 -11.596016 357.637115 
-114.222183 -11.596016 357.637146 
-118.793877 -14.642082 354.737488 
-122.083855 -18.041389 351.779724 
-125.187332 -20.258614 349.796021 
-127.838043 -20.513985 348.554169 
-127.838043 -20.514000 348.554138 
-16.825081 -15.001045 376.641296 
-19.551994 -14.107002 383.706482 
-18.989204 -13.455605 383.908661 
-23.311043 -11.523232 388.853577 
-22.691841 -10.840385 389.058014 
-26.907555 -7.991402 394.553650 
-32.141289 -4.450432 398.393555 
-38.257820 -0.922478 398.919373 
-44.707787 0.973839 398.095428 
-51.760292 1.317757 395.983215 
-57.856163 -0.171272 391.422791 
-58.101326 0.584053 391.621674 
-63.980919 -1.023781 386.913818 
-64.195518 -0.329262 387.110107 
-64.195526 -0.329262 387.110107 
-70.083366 -1.143669 382.613037 
-70.083366 -1.143669 382.613007 
-75.504364 -2.391029 377.551575 
-75.687393 -1.739326 377.739838 
-81.392059 -3.149620 373.167175 
-81.626923 -2.482567 373.371246 
-88.385773 -3.602806 369.987671 
-88.154655 -4.265495 369.774628 
-88.385765 -3.602821 369.987671 
-95.526001 -4.564140 366.613281 
-102.234261 -6.097313 362.789032 
-102.385071 -5.544456 362.989105 
-108.442337 -8.769814 360.003204 
-108.658653 -8.261436 360.130829 
-114.537926 -11.120918 357.722107 
-114.537918 -11.120934 357.722137 
-119.131065 -14.164177 354.748566 
-122.374428 -17.565620 351.734436 
-125.187325 -20.258614 349.796021 
-125.442642 -19.779106 349.761780 
-127.838036 -20.513969 348.554169 
-128.042984 -20.088875 348.537292 
-128.042984 -20.088890 348.537231 
-128.484695 -20.032738 346.812225 
-18.558723 -12.701317 383.913696 
-22.233681 -10.020882 389.098297 
-26.488319 -7.232033 394.585480 
-31.691399 -3.679420 398.398956 
-37.880577 -0.107857 398.944000 
-44.549904 1.881294 398.146576 
-51.811195 2.208855 396.010223 
-58.245216 1.385246 391.631317 
-64.307953 0.403709 387.143860 
-64.307953 0.403709 387.143829 
-70.153664 -0.453285 382.673248 
-70.153664 -0.453300 382.673218 
-75.765060 -1.035530 377.807465 
-81.735039 -1.751488 373.429932 
-88.496033 -2.871468 370.046722 
-88.496033 -2.871452 370.046722 
-95.594780 -3.862679 366.695831 
-102.434303 -4.949638 363.067932 
-108.809578 -7.711327 360.164825 
-114.812004 -10.621635 357.733826 
-114.811996 -10.621635 357.733826 
-119.444405 -13.680717 354.698425 
-122.644485 -17.097496 351.632202 
-125.667274 -19.309288 349.658081 
-128.220245 -19.659554 348.447571 
-128.220245 -19.659584 348.447540 
-128.484711 -20.032738 346.812225 
-18.317055 -11.924599 383.709686 
-21.988106 -9.137810 388.962158 
-26.237694 -6.423210 394.418304 
-31.327858 -2.906700 398.117035 
-37.525215 0.689369 398.661713 
-44.391396 2.774666 397.905121 
-51.791145 3.092522 395.771973 
-58.277428 2.197151 391.446198 
-64.313057 1.123665 387.016785 
-70.130493 0.222542 382.599213 
-70.130493 0.222527 382.599213 
-75.726295 -0.335365 377.743866 
-81.708527 -1.009727 373.339203 
-88.477676 -2.118904 369.946716 
-88.477669 -2.118919 369.946716 
-95.531029 -3.157021 366.623413 
-102.378304 -4.355400 363.019043 
-108.870636 -7.168083 360.090668 
-115.026375 -10.112770 357.656219 
-115.026360 -10.112755 357.656250 
-119.724693 -13.193108 354.578949 
-122.886543 -16.649162 351.473511 
-125.857185 -18.861595 349.487396 
-128.364441 -19.238853 348.283661 
-128.364441 -19.238869 348.283630 
-16.825081 -15.001030 376.641327 
-18.261253 -11.138954 383.308929 
-21.965981 -8.236961 388.658630 
-26.161171 -5.629799 394.079193 
-31.078880 -2.221977 397.613068 
-37.235497 1.364723 398.137238 
-44.240639 3.561028 397.408997 
-51.700661 3.870888 395.313202 
-58.189735 2.939568 391.085236 
-64.211403 1.799446 386.737732 
-64.211403 1.799446 386.737671 
-70.016716 0.871529 382.395142 
-70.016724 0.871529 382.395142 
-75.573875 0.328728 377.552704 
-81.546654 -0.334618 373.105133 
-88.326874 -1.441383 369.693939 
-88.326866 -1.441368 369.693939 
-95.341362 -2.507790 366.403778 
-102.221275 -3.806709 362.845703 
-108.837379 -6.640678 359.901794 
-115.162941 -9.590553 357.462311 
-115.162933 -9.590553 357.462311 
-119.950394 -12.703468 354.359436 
-123.096062 -16.202843 351.233673 
-126.014427 -18.415642 349.231201 
-128.462524 -18.846123 348.040649 
-128.462540 -18.846138 348.040588 
-16.825066 -15.001015 376.641357 
-18.261238 -11.138954 383.308960 
-18.409431 -10.481575 382.778381 
-21.965965 -8.236961 388.658630 
-22.170677 -7.432930 388.231354 
-26.161171 -5.629799 394.079224 
-26.265434 -4.905495 393.594269 
-31.078865 -2.221977 397.613098 
-30.947624 -1.632393 396.910187 
-37.235481 1.364754 398.137268 
-37.008675 1.897072 397.402161 
-44.240623 3.561028 397.409027 
-44.108162 4.170128 396.707550 
-51.700661 3.870903 395.313263 
-51.543175 4.500633 394.664337 
-58.189735 2.939568 391.085297 
-57.988396 3.556190 390.577606 
-64.211403 1.799461 386.737762 
-64.003975 2.371895 386.318634 
-64.211395 1.799461 386.737732 
-70.016716 0.871544 382.395172 
-69.809067 1.433647 382.059204 
-70.016724 0.871544 382.395172 
-69.809067 1.433647 382.059174 
-75.573875 0.328743 377.552704 
-75.307381 0.902275 377.234467 
-81.546646 -0.334618 373.105164 
-81.248573 0.244331 372.731201 
-88.326866 -1.441383 369.693939 
-88.045845 -0.865013 369.296570 
-88.326859 -1.441368 369.693939 
-88.045830 -0.865013 369.296570 
-95.341354 -2.507790 366.403809 
-95.042480 -1.969475 366.057343 
-102.221268 -3.806709 362.845734 
-101.975510 -3.345192 362.560669 
-108.837372 -6.640678 359.901794 
-108.697983 -6.184502 359.595856 
-115.162926 -9.590553 357.462311 
-115.172829 -9.124275 357.134430 
-115.162926 -9.590538 357.462311 
-115.172829 -9.124260 357.134460 
-119.950386 -12.703453 354.359467 
-120.065987 -12.263130 354.009827 
-123.096062 -16.202843 351.233704 
-123.228683 -15.803307 350.892273 
-126.014420 -18.415627 349.231201 
-126.102905 -18.021263 348.885651 
-128.462524 -18.846107 348.040649 
-128.495163 -18.508049 347.712952 
-128.462524 -18.846123 348.040619 
-128.495163 -18.508080 347.712891 
-128.484695 -20.032707 346.812256 
-18.742989 -9.950417 382.138245 
-22.573189 -6.756599 387.706512 
-26.520943 -4.317818 393.034241 
-30.938225 -1.219612 396.143250 
-36.869423 2.231544 396.570435 
-44.002525 4.569221 395.854828 
-51.336952 4.920662 393.898773 
-57.686211 4.006721 389.957123 
-63.705910 2.798241 385.787476 
-63.705910 2.798241 385.787445 
-69.512985 1.867882 381.601868 
-69.512993 1.867882 381.601898 
-74.945656 1.336983 376.808441 
-80.852142 0.658714 372.268341 
-87.666985 -0.451317 368.805908 
-87.666977 -0.451347 368.805939 
-94.660835 -1.572563 365.615295 
-101.653770 -2.999092 362.176849 
-108.462646 -5.856804 359.195343 
-115.040939 -8.801262 356.702911 
-115.040924 -8.801247 356.702911 
-120.021797 -11.964226 353.545837 
-123.235016 -15.517113 350.444733 
-126.097878 -17.727104 348.445679 
-128.450165 -18.272346 347.307190 
-128.450180 -18.272362 347.307159 
-128.484711 -20.032738 346.812164 
-19.195030 -9.604774 381.489899 
-23.127876 -6.256203 387.142151 
-26.922691 -3.869942 392.395386 
-31.048561 -0.962105 395.280518 
-36.813805 2.369743 395.653595 
-43.933846 4.739647 394.921417 
-51.093758 5.124474 393.045502 
-57.311394 4.253609 389.276672 
-63.343605 3.034676 385.192993 
-69.148972 2.111061 381.053253 
-69.148979 2.111046 381.053223 
-74.510223 1.585625 376.299164 
-80.384148 0.890846 371.747772 
-87.215691 -0.221626 368.253540 
-94.217278 -1.340645 365.102020 
-101.291054 -2.803566 361.735474 
-108.160812 -5.692955 358.743988 
-114.783104 -8.668968 356.211792 
-114.783096 -8.668953 356.211823 
-119.814163 -11.870781 353.026581 
-123.096260 -15.412605 349.943481 
-125.985405 -17.595024 347.947418 
-128.327545 -18.183586 346.861786 
-128.327560 -18.183617 346.861755 
-19.732704 -9.432915 380.859009 
-23.789543 -5.953621 386.570770 
-27.423302 -3.600151 391.751068 
-31.254219 -0.875999 394.426056 
-36.844582 2.312111 394.742462 
-43.910912 4.672676 393.983307 
-50.833687 5.093880 392.171356 
-56.889839 4.275383 388.583069 
-62.943901 3.061180 384.579559 
-62.943916 3.061180 384.579559 
-68.763748 2.121529 380.480103 
-68.763756 2.121544 380.480072 
-74.039955 1.608315 375.755432 
-79.870491 0.928459 371.198181 
-86.733101 -0.182945 367.687775 
-86.733086 -0.182930 367.687744 
-93.751495 -1.291283 364.563568 
-100.912880 -2.770042 361.267212 
-107.823418 -5.703804 358.285736 
-114.463234 -8.723320 355.751862 
-114.463219 -8.723320 355.751892 
-119.507774 -11.971565 352.559753 
-122.841797 -15.502281 349.473145 
-125.775345 -17.654610 347.459625 
-128.140442 -18.254448 346.436127 
-128.140442 -18.254463 346.436096 
-16.825111 -15.001045 376.641327 
-20.349113 -9.421867 380.248047 
-24.532738 -5.858559 386.010529 
-28.002678 -3.528984 391.130615 
-31.552544 -0.974632 393.612793 
-36.962151 2.062996 393.874481 
-43.933815 4.383415 393.090973 
-50.568596 4.824318 391.338776 
-56.446083 4.068626 387.919861 
-62.532555 2.875053 383.985687 
-62.532570 2.875053 383.985687 
-68.398315 1.914009 379.942078 
-68.398323 1.913994 379.942108 
-73.595825 1.421410 375.247833 
-79.361832 0.778084 370.671509 
-86.247437 -0.329765 367.141541 
-86.247437 -0.329781 367.141510 
-93.292122 -1.426491 364.033020 
-100.544044 -2.896294 360.803467 
-107.489845 -5.866539 357.870361 
-114.116180 -8.934258 355.363342 
-114.116165 -8.934242 355.363373 
-119.149391 -12.225227 352.188080 
-122.525085 -15.749046 349.100708 
-125.504913 -17.886497 347.056183 
-127.915848 -18.467735 346.081573 
-127.915848 -18.467735 346.081543 
-21.008034 -9.588768 379.698669 
-25.314217 -5.985710 385.498077 
-28.638313 -3.654869 390.551880 
-31.938805 -1.252098 392.846466 
-37.157707 1.636238 393.069916 
-43.995064 3.904503 392.296967 
-50.321724 4.342079 390.606323 
-56.023277 3.653984 387.346008 
-62.150276 2.500008 383.469238 
-62.150291 2.499992 383.469238 
-68.077469 1.521309 379.476410 
-68.077469 1.521309 379.476379 
-73.210167 1.054817 374.811127 
-78.897484 0.456795 370.206909 
-85.785355 -0.652214 366.643280 
-85.785347 -0.652199 366.643280 
-92.867088 -1.739113 363.542114 
-100.211899 -3.175926 360.379730 
-107.178192 -6.159920 357.522064 
-113.760887 -9.259468 355.052765 
-113.760872 -9.259453 355.052765 
-118.774414 -12.581383 351.916779 
-122.193787 -16.101631 348.852783 
-125.217514 -18.241386 346.780273 
-127.681801 -18.789604 345.828888 
-127.681801 -18.789619 345.828857 
-21.008034 -9.588799 379.698639 
-21.662590 -9.942009 379.253906 
-25.314232 -5.985725 385.498077 
-26.073708 -6.344551 385.077332 
-28.638329 -3.654869 390.551880 
-29.278008 -3.992668 390.079773 
-31.938820 -1.252098 392.846436 
-32.385475 -1.708458 392.223694 
-37.421089 1.048866 392.412048 
-43.995079 3.904503 392.296936 
-44.094810 3.250084 391.655060 
-50.321724 4.342064 390.606293 
-50.125664 3.671944 390.033478 
-55.661659 3.062080 386.911102 
-62.150276 2.500008 383.469269 
-61.830299 1.969398 383.076538 
-62.150276 2.499992 383.469269 
-61.830299 1.969383 383.076538 
-67.820587 0.980675 379.112549 
-67.820587 0.980690 379.112518 
-73.210167 1.054802 374.811127 
-72.888451 0.529869 374.452179 
-78.897476 0.456779 370.206879 
-78.492012 -0.029808 369.818359 
-85.785347 -0.652229 366.643280 
-85.385002 -1.138008 366.233856 
-85.785339 -0.652214 366.643280 
-85.385002 -1.137993 366.233856 
-92.515839 -2.208427 363.136078 
-100.211891 -3.175941 360.379730 
-99.939842 -3.586342 360.027069 
-107.178185 -6.159935 357.522034 
-106.892174 -6.568230 357.247223 
-113.760895 -9.259468 355.052734 
-113.426102 -9.660286 354.838806 
-113.760880 -9.259453 355.052734 
-113.426102 -9.660271 354.838837 
-118.774422 -12.581383 351.916779 
-118.419136 -12.995491 351.759033 
-122.193794 -16.101631 348.852814 
-121.873528 -16.519539 348.725342 
-125.217514 -18.241371 346.780304 
-124.939125 -18.670555 346.635376 
-127.681801 -18.789604 345.828857 
-127.456612 -19.180595 345.690277 
-127.681808 -18.789619 345.828827 
-127.456619 -19.180611 345.690247 
-128.484711 -20.032722 346.812225 
-14.677696 -13.384037 362.243713 
-9.168678 -15.435101 357.670593 
-14.951141 -14.202297 362.129761 
-17.887558 -12.248665 369.674805 
-18.182121 -13.118977 369.541229 
-19.808510 -11.641609 375.678406 
-20.097275 -12.443306 375.536102 
-22.493958 -10.842899 378.861298 
-22.774933 -11.681469 378.662994 
-9.168694 -15.435116 357.670563 
-14.968956 -15.049984 362.154633 
-18.200577 -14.056454 369.501740 
-20.146713 -13.297668 375.526978 
-22.889465 -12.554798 378.724731 
-14.730278 -15.872173 362.318573 
-17.945992 -14.969349 369.560791 
-19.965988 -14.140396 375.647949 
-22.837524 -13.384518 379.022766 
-9.168663 -15.435104 357.670624 
-14.290230 -16.574780 362.588470 
-17.460396 -15.771477 369.707703 
-19.584450 -14.890362 375.878418 
-22.634018 -14.099693 379.520630 
-9.168678 -15.435108 357.670563 
-13.692314 -17.115131 362.941864 
-16.805397 -16.410309 369.921082 
-19.045509 -15.490730 376.193787 
-22.303772 -14.645771 380.152893 
-13.692314 -17.115108 362.941833 
-13.005371 -17.482830 363.346832 
-16.805397 -16.410297 369.921082 
-16.044159 -16.860996 370.179718 
-19.045502 -15.490719 376.193817 
-18.399345 -15.920609 376.565094 
-22.303787 -14.645779 380.152893 
-21.883324 -15.005081 380.856476 
-12.300331 -17.643459 363.763153 
-15.216324 -17.106548 370.471680 
-17.685249 -16.165047 376.965271 
-21.409348 -15.181694 381.591858 
-9.168686 -15.435097 357.670563 
-11.544891 -17.611805 364.196686 
-14.335014 -17.120110 370.788177 
-16.927040 -16.204796 377.389771 
-20.907005 -15.178288 382.304688 
-9.168671 -15.435089 357.670624 
-9.168648 -15.435085 357.670654 
-11.544884 -17.611809 364.196716 
-10.813194 -17.368149 364.601715 
-14.334999 -17.120106 370.788208 
-13.471581 -16.884136 371.101807 
-16.927032 -16.204777 377.389771 
-16.162903 -16.026192 377.813324 
-20.907005 -15.178265 382.304718 
-20.374626 -14.991638 383.010864 
-10.149834 -16.920830 364.954987 
-12.707115 -16.417850 371.386841 
-15.487312 -15.652897 378.178040 
-19.860733 -14.611301 383.645996 
-9.168648 -15.435101 357.670624 
-9.605316 -16.303314 365.234161 
-12.094528 -15.755985 371.621857 
-14.930840 -15.079185 378.477264 
-19.406578 -14.027531 384.140533 
-9.168663 -15.435093 357.670593 
-9.605286 -16.303310 365.234192 
-9.230400 -15.521648 365.408478 
-12.094521 -15.755989 371.621887 
-11.677704 -14.925575 371.789703 
-14.544022 -14.327785 378.683044 
-19.066109 -13.266178 384.436218 
-9.068779 -14.669548 365.454315 
-11.499443 -14.006824 371.874786 
-14.385368 -13.477722 378.758118 
-18.891975 -12.391769 384.480621 
-9.150826 -13.840405 365.358856 
-11.588005 -13.084492 371.864227 
-14.457130 -12.619461 378.701599 
-18.888550 -11.515522 384.278320 
-9.168655 -15.435085 357.670624 
-9.465874 -13.047070 365.130127 
-11.936501 -12.205956 371.759949 
-14.736023 -11.818180 378.526917 
-19.033195 -10.737728 383.879669 
-9.168640 -15.435070 357.670654 
-9.465858 -13.047066 365.130157 
-9.967400 -12.430672 364.807465 
-11.936485 -12.205952 371.759949 
-12.499458 -11.483704 371.580078 
-14.736008 -11.818184 378.526947 
-15.203499 -11.128960 378.249268 
-19.033180 -10.737724 383.879700 
-19.319145 -10.068577 383.305786 
-10.632812 -11.984951 364.405304 
-13.233147 -10.939121 371.335052 
-15.789963 -10.611835 377.913239 
-19.682068 -9.599823 382.667633 
-11.351540 -11.752468 363.988739 
-14.063362 -10.607319 371.057159 
-16.491173 -10.267605 377.513275 
-20.136772 -9.307316 381.939301 
-12.089325 -11.713539 363.575439 
-14.932503 -10.496311 370.760315 
-17.229416 -10.123135 377.097778 
-20.622925 -9.208557 381.208771 
-9.168678 -15.435108 357.670624 
-12.843094 -11.853939 363.168671 
-15.808937 -10.608158 370.452728 
-17.971046 -10.193626 376.684601 
-21.123512 -9.318527 380.503448 
-13.561729 -12.181381 362.794220 
-16.637604 -10.945324 370.154236 
-18.690575 -10.471638 376.284851 
-21.634201 -9.630684 379.828766 
-13.561737 -12.181408 362.794189 
-14.186768 -12.691853 362.478333 
-16.637611 -10.945339 370.154236 
-17.347404 -11.500210 369.887939 
-18.690582 -10.471642 376.284851 
-19.315727 -10.959644 375.942444 
-21.634232 -9.630684 379.828735 
-22.099098 -10.145679 379.268188 
-8.547191 -13.060699 354.096313 
-2.688396 -15.667999 350.308746 
-8.952256 -13.756302 353.765656 
-13.071479 -12.353882 360.867218 
-13.502988 -13.090851 360.502899 
-16.152790 -12.246689 366.398529 
-16.562408 -12.918182 366.041260 
-2.688411 -15.667999 350.308685 
-9.152549 -14.565720 353.609894 
-13.707881 -13.975693 360.266602 
-16.786324 -13.720703 365.845581 
-9.135797 -15.436691 353.640930 
-13.670861 -14.920670 360.181030 
-16.819042 -14.590057 365.820221 
-2.688394 -15.668015 350.308777 
-8.927056 -16.260361 353.836212 
-13.411345 -15.831284 360.246002 
-16.666725 -15.438141 365.956848 
-2.688396 -15.667999 350.308685 
-8.553512 -16.981567 354.174896 
-12.971934 -16.638611 360.440430 
-16.353050 -16.195984 366.235504 
-8.553500 -16.981552 354.174866 
-8.071080 -17.568176 354.615631 
-12.971936 -16.638596 360.440430 
-12.402591 -17.299820 360.737305 
-16.353050 -16.195984 366.235535 
-15.914643 -16.826492 366.623352 
-7.530673 -17.963242 355.113708 
-11.734635 -17.786911 361.121246 
-15.379474 -17.301331 367.090210 
-2.688397 -15.667984 350.308716 
-6.906039 -18.189880 355.677704 
-10.972915 -18.069550 361.587067 
-14.765092 -17.595459 367.631226 
-2.688396 -15.667999 350.308777 
-2.688378 -15.667999 350.308807 
-6.906037 -18.189880 355.677734 
-6.252980 -18.203522 356.253998 
-10.972898 -18.069565 361.587097 
-10.175218 -18.108902 362.098633 
-14.765079 -17.595428 367.631226 
-14.099101 -17.682281 368.217834 
-5.610255 -17.997375 356.810211 
-9.416730 -17.898987 362.612152 
-13.462920 -17.551712 368.771973 
-2.688378 -15.668015 350.308777 
-5.027732 -17.587265 357.308411 
-8.750056 -17.456467 363.089935 
-12.882823 -17.189606 369.282562 
-2.688380 -15.667999 350.308746 
-5.027715 -17.587280 357.308441 
-4.547830 -16.961456 357.708466 
-8.750054 -17.456482 363.089966 
-8.218617 -16.793503 363.501709 
-12.405194 -16.600662 369.708679 
-4.226239 -16.194855 357.959839 
-7.876290 -15.973587 363.807770 
-12.093598 -15.839905 369.987183 
-4.108468 -15.367111 358.025299 
-7.764741 -15.068634 363.972900 
-11.968917 -14.993073 370.098022 
-2.688380 -15.667999 350.308777 
-4.188914 -14.494415 357.911804 
-7.887780 -14.125916 363.990356 
-12.025783 -14.130356 370.044769 
-2.688366 -15.667984 350.308807 
-4.188897 -14.494431 357.911835 
-4.462003 -13.729431 357.636505 
-7.887765 -14.125916 363.990356 
-8.229960 -13.267120 363.862640 
-12.025781 -14.130356 370.044800 
-12.261626 -13.311417 369.834198 
-4.908267 -13.074097 357.218689 
-8.756587 -12.525223 363.603516 
-12.633143 -12.617996 369.509491 
-5.446555 -12.606934 356.732727 
-9.411975 -11.957367 363.250519 
-13.135207 -12.051071 369.066040 
-6.044291 -12.320465 356.206146 
-10.146239 -11.587769 362.826172 
-13.710746 -11.663284 368.559143 
-2.688409 -15.668015 350.308777 
-6.696280 -12.202393 355.645477 
-10.931666 -11.427567 362.343811 
-14.335082 -11.480423 368.009186 
-7.361541 -12.276886 355.083588 
-11.721015 -11.495972 361.832184 
-14.984984 -11.503448 367.433075 
-7.361537 -12.276901 355.083557 
-7.989682 -12.558838 354.557343 
-11.721026 -11.495987 361.832184 
-12.450444 -11.807114 361.328461 
-14.985000 -11.503464 367.433075 
-15.602427 -11.759735 366.885986 
-1.764935 -9.074890 337.262878 
3.651919 -8.631958 332.170624 
-1.929908 -9.841064 336.884674 
-4.589999 -10.964127 344.696808 
-4.769980 -11.775513 344.282928 
-6.165246 -12.676666 350.586426 
-6.349561 -13.420380 350.187347 
-8.713412 -13.395111 353.898682 
-8.888736 -14.153473 353.434326 
3.651906 -8.631958 332.170593 
-1.828822 -10.641495 336.622742 
-4.661496 -12.638397 343.930176 
-6.281104 -14.220627 349.891754 
-8.877181 -15.004745 353.200195 
-1.468394 -11.424973 336.495850 
-4.279935 -13.469254 343.673737 
-5.978017 -15.017883 349.718506 
-8.691150 -15.868073 353.200256 
3.651937 -8.631958 332.170654 
-0.918320 -12.101334 336.505493 
-3.679450 -14.190689 343.533234 
-5.481891 -15.734253 349.676056 
-8.357629 -16.667633 353.424347 
3.651917 -8.631958 332.170593 
-0.228994 -12.630066 336.645630 
-2.929609 -14.756149 343.507416 
-4.845130 -16.315323 349.761230 
-7.913110 -17.334778 353.829773 
-0.228999 -12.630035 336.645599 
0.527965 -13.001450 336.890961 
-2.929611 -14.756134 343.507416 
-2.097696 -15.145096 343.585724 
-4.845122 -16.315323 349.761261 
-4.122165 -16.739716 349.954651 
-7.913123 -17.334778 353.829773 
-7.400409 -17.837753 354.363678 
1.274990 -13.180969 337.216431 
-1.226037 -15.343842 343.763367 
-3.355716 -16.990570 350.236511 
-6.857881 -18.172913 354.988159 
3.651910 -8.631943 332.170593 
2.046445 -13.179398 337.622009 
-0.331896 -15.326462 344.041351 
-2.572281 -17.052094 350.609467 
-6.313699 -18.328644 355.651550 
3.651927 -8.631958 332.170654 
3.651952 -8.631958 332.170685 
2.046454 -13.179398 337.622040 
2.763246 -12.974579 338.072601 
-0.331880 -15.326477 344.041382 
0.509945 -15.078476 344.401001 
-2.572276 -17.052063 350.609497 
-1.813193 -16.909027 351.055023 
-6.313701 -18.328629 355.651581 
-5.765578 -18.306900 356.369904 
3.380906 -12.573395 338.544342 
1.220267 -14.621643 344.813141 
-1.172457 -16.578720 351.512360 
-5.267272 -18.084122 357.087006 
3.651952 -8.631958 332.170654 
3.852626 -12.007385 339.005707 
1.750134 -13.989319 345.246674 
-0.681518 -16.058289 351.977631 
-4.865594 -17.634521 357.741302 
3.651933 -8.631943 332.170624 
3.852658 -12.007385 339.005737 
4.127002 -11.279739 339.426636 
1.750145 -13.989334 345.246704 
2.058753 -13.207733 345.677216 
-0.389075 -15.367416 352.417786 
-4.614232 -16.971176 358.270264 
4.172194 -10.476593 339.754089 
2.113848 -12.352951 346.063782 
-0.344554 -14.576294 352.772125 
-4.559852 -16.144867 358.603668 
3.970214 -9.685364 339.945038 
1.898317 -11.503983 346.366180 
-0.537752 -13.769241 353.009369 
-4.691115 -15.261383 358.708405 
3.651942 -8.631943 332.170685 
3.533917 -8.919006 340.002563 
1.425642 -10.704529 346.570160 
-0.935758 -13.007828 353.119812 
-4.968398 -14.427322 358.597748 
3.651956 -8.631943 332.170715 
3.533935 -8.919022 340.002594 
2.931420 -8.314896 339.915283 
1.425656 -10.704514 346.570160 
0.757504 -10.058395 346.654022 
-0.935740 -13.007843 353.119843 
-1.511612 -12.345551 353.098846 
-4.968381 -14.427322 358.597778 
-5.382178 -13.658081 358.287994 
2.185160 -7.868484 339.698517 
-0.059222 -9.582291 346.619690 
-2.185240 -11.842453 352.967041 
-5.848714 -13.066025 357.851593 
1.414673 -7.624054 339.397278 
-0.944187 -9.308228 346.484406 
-2.952717 -11.496765 352.718781 
-6.387717 -12.622299 357.272461 
0.652291 -7.563889 339.034241 
-1.838422 -9.239487 346.257568 
-3.730264 -11.337631 352.389191 
-6.931205 -12.363113 356.626526 
3.651921 -8.631973 332.170654 
-0.100687 -7.675323 338.617157 
-2.709832 -9.375854 345.945618 
-4.481334 -11.380005 351.989441 
-7.458434 -12.308853 355.934235 
-0.790946 -7.966293 338.166870 
-3.502327 -9.717789 345.565460 
-5.181012 -11.616699 351.532013 
-7.965665 -12.454575 355.202881 
-0.790953 -7.966309 338.166840 
-1.359491 -8.432785 337.708405 
-3.502332 -9.717804 345.565460 
-4.145137 -10.254990 345.140198 
-5.181018 -11.616699 351.532013 
-5.754567 -12.053513 351.056152 
-7.965697 -12.454575 355.202850 
-8.391923 -12.819931 354.509735 
